# .PCD v0.7 - Sample ceramic bowl fragment
VERSION 0.7
FIELDS x y z
SIZE 4 4 4
TYPE F F F
COUNT 1 1 1
WIDTH 360
HEIGHT 1
VIEWPOINT 0 0 0 1 0 0 0
POINTS 360
DATA ascii
0.059376 0.003065 -0.053539
0.045239 0.007632 -0.065183
0.042423 0.061678 -0.028802
0.031468 0.067591 -0.028730
0.011582 0.049907 -0.061282
0.076001 0.014525 -0.020550
0.007840 0.050125 -0.061877
0.018901 0.046471 -0.062883
0.056159 0.005196 -0.056602
0.066618 0.039112 -0.020988
0.064614 0.028221 -0.038430
0.012574 0.074887 -0.025209
0.013203 0.038118 -0.068628
0.073883 0.004491 -0.029041
-0.017581 0.072589 -0.028249
0.028422 0.034728 -0.065885
0.054585 0.030115 -0.049498
0.022548 0.033382 -0.069146
0.027687 0.071682 -0.021084
0.021314 0.034782 -0.069254
0.014474 0.076930 -0.014726
0.052167 0.056397 -0.021270
0.041154 0.022890 -0.064033
0.024158 0.068164 -0.033820
0.027304 0.045568 -0.059303
-0.016597 0.077173 -0.015620
0.072359 0.007517 -0.033987
0.008761 0.077343 -0.018779
0.032714 0.058478 -0.044645
0.010874 0.063083 -0.047859
0.012459 0.038345 -0.068957
0.030620 0.064532 -0.035990
0.027423 0.073457 -0.018670
0.020884 0.071238 -0.029684
0.019508 0.039081 -0.066854
0.052144 0.056638 -0.020343
0.015263 0.052985 -0.058209
0.042837 0.022198 -0.063657
0.058942 0.035593 -0.041874
0.063364 0.006724 -0.048722
-0.008527 0.040813 -0.068382
0.068826 0.007147 -0.039462
0.004508 0.073428 -0.030643
0.011775 0.062208 -0.048812
0.018067 0.037415 -0.067792
-0.004195 0.065694 -0.045411
0.072362 0.026856 -0.019347
0.041498 0.020798 -0.065374
0.029159 0.061665 -0.041022
0.054253 0.050997 -0.030107
0.009443 0.071583 -0.033831
0.071308 0.030865 -0.018202
-0.005617 0.046780 -0.064522
-0.019779 0.057563 -0.052076
0.042021 0.026848 -0.061945
0.037683 0.067321 -0.020775
0.051336 0.021043 -0.058081
0.048197 0.008409 -0.063191
0.006953 0.078243 -0.014156
0.067904 0.001821 -0.041379
0.023021 0.039208 -0.065596
-0.011039 0.071562 -0.034902
0.042261 0.018173 -0.065372
0.024953 0.064543 -0.039814
-0.014076 0.045126 -0.063600
-0.015271 0.070054 -0.036400
0.044353 0.024781 -0.061351
-0.000198 0.074377 -0.028765
0.047011 0.021895 -0.061357
0.036628 0.021246 -0.068333
0.021334 0.035198 -0.068430
0.036840 0.020859 -0.067736
0.045159 0.031014 -0.058255
0.015643 0.072846 -0.030912
0.012030 0.062363 -0.048134
0.047063 0.034308 -0.054240
0.046487 0.030589 -0.057741
0.053225 0.055867 -0.022705
0.017227 0.042667 -0.065398
0.030120 0.061017 -0.042070
0.061504 0.027137 -0.042469
0.042397 0.064628 -0.019879
0.006374 0.049825 -0.062081
0.045381 0.058629 -0.030376
0.024497 0.064757 -0.041094
0.058700 0.000628 -0.054873
0.053188 0.056886 -0.021245
-0.004289 0.073289 -0.030417
-0.019218 0.054673 -0.054625
0.031216 0.046026 -0.057843
0.006336 0.045612 -0.065413
0.029150 0.044646 -0.059894
0.066235 0.040760 -0.019342
0.017537 0.072265 -0.029507
0.034657 0.059683 -0.041029
0.014777 0.060599 -0.050967
0.069653 0.001195 -0.038358
0.008688 0.067587 -0.041261
0.068078 0.030563 -0.028938
0.066077 0.021387 -0.040229
0.059888 0.003358 -0.052179
0.048495 0.059622 -0.023011
0.060647 0.043679 -0.028118
0.072372 0.011936 -0.030716
0.031004 0.024478 -0.069570
0.039485 0.016233 -0.067435
0.021433 0.073589 -0.022628
0.029423 0.069773 -0.025386
-0.013935 0.048446 -0.062312
0.031180 0.029301 -0.067893
0.020855 0.053549 -0.055864
-0.024370 0.073081 -0.022393
0.051435 0.044565 -0.041377
-0.021318 0.073928 -0.021503
0.037601 0.040932 -0.056997
0.038873 0.050764 -0.047852
-0.004660 0.073146 -0.031632
0.025847 0.061604 -0.043797
0.045840 0.017162 -0.063841
0.049267 0.029315 -0.056580
0.014012 0.076193 -0.019891
0.002791 0.065997 -0.045243
0.047112 0.031430 -0.056472
0.043617 0.032117 -0.059018
0.071953 0.017101 -0.031201
0.068986 0.030001 -0.026337
0.022091 0.035138 -0.068377
0.075829 0.001820 -0.026060
0.020173 0.036142 -0.068131
0.021169 0.042001 -0.064360
0.075493 0.007315 -0.026200
0.027277 0.072837 -0.018896
0.052665 0.034650 -0.049372
0.046711 0.021473 -0.060912
-0.005199 0.067507 -0.042853
-0.013699 0.052934 -0.058313
0.055904 0.017475 -0.054253
0.052190 0.032712 -0.050624
0.036048 0.042556 -0.056617
-0.013262 0.056686 -0.054450
-0.010132 0.058107 -0.053796
0.025109 0.048000 -0.058783
0.013209 0.055529 -0.056130
0.052849 0.057616 -0.016419
-0.020894 0.074163 -0.018994
0.049979 0.029138 -0.055058
0.021142 0.063211 -0.044550
0.064636 0.011322 -0.045191
-0.004623 0.058261 -0.055247
0.025657 0.043876 -0.061815
-0.020955 0.068972 -0.034837
0.044706 0.045568 -0.048027
0.019442 0.049876 -0.059940
0.015290 0.066704 -0.041724
0.054777 0.027316 -0.052022
-0.007363 0.039654 -0.068974
0.028550 0.040260 -0.062785
0.037324 0.018298 -0.068676
0.025451 0.036545 -0.066483
-0.014671 0.066499 -0.040927
0.060389 0.039015 -0.032890
0.050430 0.038984 -0.048186
0.055011 0.039394 -0.043495
0.052439 0.004397 -0.060641
0.037193 0.033830 -0.061444
0.044583 0.063821 -0.016754
0.031089 0.035373 -0.064535
0.055891 0.016382 -0.054142
0.016672 0.068793 -0.035873
0.056957 0.039866 -0.039282
0.047724 0.003444 -0.063497
0.035967 0.040468 -0.058583
0.031022 0.035089 -0.063903
0.054825 0.048142 -0.033097
0.003151 0.062816 -0.049291
-0.013703 0.073140 -0.029761
0.065654 0.034778 -0.030504
0.050092 0.056870 -0.024257
0.040826 0.043864 -0.053383
0.059732 0.028762 -0.045092
0.034552 0.021654 -0.069085
0.008438 0.057086 -0.055739
-0.010910 0.065294 -0.045917
0.021868 0.055174 -0.053786
-0.002714 0.058036 -0.054674
0.029785 0.060807 -0.042572
0.009903 0.072123 -0.034276
-0.011891 0.063312 -0.047836
0.030316 0.039540 -0.062456
0.040816 0.011853 -0.068075
-0.016387 0.052602 -0.058104
0.040856 0.066968 -0.014722
0.025428 0.051549 -0.055017
-0.009786 0.077215 -0.015860
0.074397 0.008450 -0.028858
-0.018333 0.074090 -0.023046
-0.010008 0.076894 -0.020753
0.029533 0.031136 -0.067494
0.067211 0.013013 -0.040823
0.046300 0.053425 -0.038386
0.071404 -0.000761 -0.019762
0.063394 0.000636 -0.022748
0.054369 -0.000119 -0.050941
0.070153 0.001547 -0.020260
0.064282 -0.000652 -0.023095
0.077519 0.000324 -0.013505
0.062395 -0.000194 -0.025032
0.064899 0.000150 -0.025906
0.049616 -0.001137 -0.053279
0.069344 0.000280 -0.019383
0.050461 -0.000149 -0.058842
0.058877 -0.000454 -0.040198
0.038053 0.000666 -0.054100
0.054873 -0.001471 -0.047228
0.057521 -0.000281 -0.043032
0.055452 -0.000127 -0.052093
0.057370 0.000932 -0.037037
0.064151 -0.000405 -0.038790
0.036877 -0.000385 -0.054145
0.047033 -0.001099 -0.056999
0.059373 0.001177 -0.029801
0.054184 -0.000752 -0.057532
0.052875 -0.000594 -0.042066
0.067861 -0.001621 -0.036738
0.049023 -0.001253 -0.063032
0.042705 -0.000069 -0.064230
0.049094 0.000094 -0.048913
0.057640 -0.000167 -0.033696
0.045864 0.000441 -0.050693
0.048965 0.000283 -0.055265
0.070501 -0.000708 -0.023093
0.058042 0.000015 -0.036966
0.058796 -0.001040 -0.036254
0.064097 0.000846 -0.036709
0.062771 0.000891 -0.022724
0.066977 -0.000338 -0.023332
0.048709 0.000870 -0.060380
0.043539 -0.001160 -0.064952
0.050050 0.000136 -0.051215
0.059360 0.000376 -0.050840
0.041536 -0.000646 -0.054604
0.062643 0.000588 -0.031231
0.070323 -0.000517 -0.019791
0.042451 0.000402 -0.052818
0.058251 -0.000518 -0.049150
0.050817 -0.002155 -0.056168
0.057841 -0.001409 -0.046314
0.069474 -0.000261 -0.016239
0.070600 0.001019 -0.015213
0.076032 0.000849 -0.019190
0.057840 -0.000593 -0.041192
0.047241 -0.000494 -0.057181
0.063714 0.001297 -0.020311
0.055870 0.000015 -0.038450
0.062054 0.000812 -0.038674
0.066456 0.000352 -0.034187
0.064460 -0.000736 -0.015394
0.043720 -0.000661 -0.063650
0.067911 -0.000312 -0.021145
0.038455 -0.001266 -0.057722
0.047968 -0.001441 -0.058286
0.052211 -0.000613 -0.047659
0.065038 -0.000373 -0.022183
0.075675 0.001382 -0.018093
0.048881 0.000213 -0.061433
0.058809 0.000840 -0.033272
0.042493 0.000393 -0.052200
0.058283 -0.000010 -0.037470
0.056039 -0.001050 -0.041376
0.042615 -0.000790 -0.067070
0.064613 -0.000388 -0.035366
0.068679 0.000894 -0.029007
0.075239 -0.000659 -0.020244
0.037897 -0.002235 -0.054770
0.066886 0.000188 -0.025280
0.074402 -0.000169 -0.029580
0.042256 -0.001432 -0.064463
0.047288 0.001006 -0.058432
0.055267 0.000367 -0.034579
0.049777 0.000631 -0.052505
-0.021139 0.056799 -0.028066
-0.014350 0.040800 -0.060705
-0.021904 0.059063 -0.025231
-0.016003 0.045761 -0.045420
-0.019380 0.054894 -0.043424
-0.019972 0.055852 -0.053025
-0.015686 0.041491 -0.053191
-0.020885 0.053405 -0.029690
-0.025588 0.068576 -0.025274
-0.026198 0.069327 -0.017333
-0.021607 0.063057 -0.015854
-0.018900 0.051543 -0.041875
-0.022900 0.063067 -0.035496
-0.014796 0.042359 -0.062279
-0.014013 0.035415 -0.062783
-0.015732 0.041438 -0.048450
-0.018358 0.052916 -0.042520
-0.021381 0.060319 -0.039032
-0.013898 0.039277 -0.055297
-0.024923 0.066883 -0.017045
-0.019091 0.054694 -0.055025
-0.025646 0.069447 -0.017354
-0.020391 0.052381 -0.046563
-0.018860 0.052335 -0.045170
-0.021133 0.056745 -0.025992
-0.021260 0.056400 -0.026466
-0.024806 0.067482 -0.032049
-0.014522 0.039985 -0.058270
-0.014711 0.040428 -0.056221
-0.016008 0.044503 -0.060408
-0.015830 0.044621 -0.054813
-0.023909 0.066324 -0.013721
-0.019737 0.055684 -0.044445
-0.021103 0.058149 -0.045470
-0.014010 0.036987 -0.064292
-0.015884 0.047056 -0.055126
-0.022665 0.063112 -0.041082
-0.022980 0.062463 -0.032337
-0.015340 0.043557 -0.063687
-0.022684 0.061493 -0.031020
-0.012945 0.033034 -0.057264
-0.021393 0.057456 -0.047804
-0.019195 0.049986 -0.049970
-0.020514 0.056726 -0.041360
-0.021982 0.059165 -0.043104
-0.020887 0.057989 -0.037618
-0.023465 0.062224 -0.032515
-0.022105 0.060148 -0.034557
-0.021235 0.059749 -0.027778
-0.024196 0.068220 -0.029357
-0.018506 0.049806 -0.044334
-0.020240 0.056576 -0.028258
-0.012347 0.033914 -0.059104
-0.018075 0.047866 -0.049101
-0.022924 0.060972 -0.041269
-0.017799 0.049570 -0.042358
-0.021646 0.061660 -0.044198
-0.012808 0.034816 -0.061060
-0.014050 0.040250 -0.064125
-0.022912 0.061860 -0.020201
-0.019293 0.053331 -0.046257
-0.014916 0.043592 -0.049989
-0.021045 0.058794 -0.045618
-0.012443 0.036167 -0.063987
-0.017271 0.044322 -0.045582
-0.021034 0.054934 -0.047747
-0.018893 0.051853 -0.049236
-0.012393 0.034595 -0.056103
-0.025301 0.068431 -0.021859
-0.015926 0.042860 -0.047798
-0.023414 0.063013 -0.032633
-0.020429 0.059031 -0.032840
-0.019366 0.052100 -0.050600
-0.024734 0.069468 -0.028445
-0.024422 0.067424 -0.025484
-0.021294 0.057079 -0.027270
-0.012742 0.036883 -0.066347
-0.016367 0.045343 -0.050108
-0.020429 0.052470 -0.038087
-0.019369 0.052582 -0.047465
